# .PCD v0.7 - Point Cloud Data file format
VERSION 0.7
FIELDS x y z
SIZE 4 4 4
TYPE F F F
COUNT 1 1 1
WIDTH 1100
HEIGHT 1
VIEWPOINT 0 0 0 1 0 0 0
POINTS 1100
DATA ascii
-0.90600717 0.25120714 -0.004343912
-0.50409538 -0.6854701 -0.84126723
-0.13979658 -0.3928521 0.32366768
0.64184147 -0.27489528 -0.057852905
0.81562513 -0.41435263 0.24340928
-0.82074225 -0.71579409 0.047282618
0.16881745 0.33416146 0.98322737
0.49521261 0.69337118 -0.64311904
0.1037467 -0.54390228 -0.091148242
0.4602578 0.47920057 -0.93596876
0.19902706 -0.42680663 -0.68476158
0.19468315 -0.930902 0.62976825
-0.64658409 0.92930138 0.23691618
-0.32291639 -0.42885712 -0.037979107
-0.38076928 0.38676804 -0.45233175
-0.13736001 -0.43397421 0.83187419
-0.090077385 -0.26515675 -0.83396435
0.89314997 0.23005585 -0.14059314
0.25003093 0.33380255 -0.68449539
0.15888268 0.79406035 -0.2052948
-0.77708608 0.99308741 -0.63210142
0.53815234 -0.81222945 0.43699655
-0.83207941 0.54118651 -0.63370204
-0.59516323 0.21827012 0.93744081
-0.63314235 -0.16249916 -0.67579114
0.91452593 -0.29985917 0.89023471
-0.25359985 -0.38993657 0.6250779
0.91243583 0.50321341 0.85513377
0.77184266 0.75324434 -0.81106365
0.087347299 0.91212702 -0.017003305
-0.1179475 0.13504094 0.97608411
-0.75004894 0.67319328 0.16385469
-0.31305236 -0.15888613 0.70504117
-0.9467544 -0.75404936 0.92331129
-0.0093135685 0.61280835 0.76081216
-0.68510467 -0.47266573 0.460953
0.20512998 -0.72626561 0.071016431
0.83020794 0.18617021 0.57422984
-0.31465831 0.95801288 -0.67252582
0.87427801 -0.95463979 0.23960119
0.85727471 0.92741269 0.37464213
-0.16664116 0.17736375 -0.95216459
-0.0027864799 -0.1356886 0.88894928
0.70225471 0.917557 0.13489991
-0.37443399 0.90824342 0.74770826
0.38637817 0.22313872 0.2750425
0.84733117 0.4282687 -0.45122311
0.9183476 -0.74152339 -0.26505288
-0.50742257 0.94381833 0.69296002
0.82005161 -0.18190365 -0.26167983
-0.94034719 0.67537105 0.66573286
-0.56570506 0.50872993 0.84309661
0.48213038 0.50594342 0.70740801
-0.62892038 -0.79180187 -0.37503502
-0.49402046 0.83376414 0.53320843
0.2536878 -0.7798577 0.75634712
0.52873027 0.067473471 -0.81538415
0.077507198 0.98582107 0.44309247
-0.18754569 0.4783985 -0.6130892
0.50541431 -0.70154989 -0.79499286
0.24373449 0.35810292 -0.11962178
0.90946734 -0.20760211 0.38910815
-0.24743602 0.27452826 0.8950516
0.45997199 -0.35439211 0.10324974
0.084936976 -0.84841257 0.93701392
0.61814541 -0.59472477 0.15715623
-0.62550747 -0.065994464 0.22462972
0.55910838 0.011512738 -0.78954923
-0.99779916 -0.17603295 -0.31115073
0.38911161 0.32938138 0.98729938
-0.40588126 0.57311589 -0.6545977
-0.52550304 -0.51741678 -0.86219978
-0.13639487 -0.76485282 -0.58767152
0.75865674 -0.3048808 -0.94206363
0.86190647 -0.21994384 0.2095238
-0.20107962 0.39820156 -0.38520098
-0.043923385 -0.22730593 -0.45119542
0.18070632 0.33180243 -0.43968269
-0.60884291 -0.66599679 -0.61571562
-0.91999364 -0.27688515 -0.28633428
0.067305729 -0.68276638 0.28678158
-0.58729196 0.79173058 -0.2306352
0.5505082 0.65533572 -0.99548799
-0.037163321 -0.5860076 0.69963121
-0.97922695 0.2758989 0.47968736
-0.76970321 0.074819282 0.87788892
0.84509587 0.030895896 0.65058297
0.39390042 0.21160223 0.9823854
-0.045782283 -0.39724067 0.31638864
-0.66149795 0.68276566 0.039503496
-0.94783223 0.75007141 -0.64326292
-0.66105062 0.16277945 0.14846769
-0.89168578 0.71328771 0.80380338
0.11282621 0.67612433 0.21779582
0.81245744 -0.30310261 0.49369472
-0.70785522 0.92719418 0.56851399
0.17003372 -0.22770995 0.59940994
0.82061672 0.16619046 0.81101215
-0.1969979 0.12040818 0.41377145
0.11939076 -0.54108977 -0.90346289
0.28310844 0.30884561 -0.90799999
0.5047195 -0.65426606 -0.56319988
0.71000797 -0.24767719 -0.65920007
-0.032574806 -0.94467032 0.32639989
0.41033685 -0.78647894 0.46160004
0.91578174 0.20605084 -0.34479982
0.43568426 -0.80434024 0.40399998
-0.34166649 -0.81999964 0.45919997
0.75084174 -0.47780827 0.45599994
-0.7985006 0.36853877 -0.47599992
0.57217067 -0.70679897 0.41599992
0.83974248 -0.52483904 -0.13919993
0.38722646 -0.87125945 0.30160007
0.60607809 -0.53477472 0.58879995
-0.9104436 0.26012668 0.32160002
0.65377671 0.5849582 0.47999996
0.85309225 0.11903613 -0.50800008
-0.94376779 -0.19359343 -0.26799992
-0.65713561 0.71972001 0.2239999
-0.61293679 -0.65520823 -0.44160011
0.93236905 -0.35649407 -0.059999846
-0.82825118 0.47328639 -0.29999992
-0.6973297 -0.45232201 -0.55600005
0.21114545 0.8093909 0.54799992
0.42457622 0.707627 0.56480002
0.77651119 -0.52528703 -0.34799981
-0.18707691 -0.60131872 -0.77679986
-0.14463855 -0.75935256 0.63439995
-0.97365552 0.18420509 -0.13440003
0.97515506 -0.15236801 0.16080002
-0.87117022 0.41138595 -0.26800013
-0.5792619 0.50685412 0.63840002
-0.27724239 0 0.96079999
0.67077988 0.72237831 -0.16799983
-0.64030492 0.013623497 -0.76800001
0.029153384 0.35712877 -0.93360007
-0.65610927 0.36450523 0.66079992
0.8055805 0.55770963 0.20000002
-0.26908442 -0.92956418 -0.252
-0.4811506 0.72172588 -0.49760011
0.74087429 -0.1852186 -0.64560002
0.31176946 0.1385642 -0.93999988
-0.48908734 0.85590273 0.16800013
0.079357341 0.23807226 0.96799999
0.96512234 -0.24128059 -0.10160009
0.32950872 0.85672277 -0.39679986
-0.18608902 -0.96145988 0.20239998
-0.3540847 -0.74357796 0.56720001
-0.49253631 -0.85545778 -0.15999991
0.74976432 0.60464865 -0.26880002
-0.55856395 -0.31334072 -0.76799995
0.63426185 0.2238571 0.73999995
0.63141114 0.040302798 -0.77440017
0.90112251 0.37546763 -0.21680002
-0.7285462 -0.61103868 -0.30959997
-0.69847834 0.66672927 0.26000008
-0.59980798 -0.69977599 0.38799995
0.67428178 0.60685366 0.42080003
-0.39183667 -0.039183632 0.9192
-0.97515506 -0.15236801 0.16080002
-0.15945505 0.039863732 0.98640001
-0.93780822 0.1616911 0.3071999
0.34017873 0.4457514 -0.82800007
0.4778083 -0.75084168 0.45600003
-0.35411999 0 0.93519998
-0.5792619 0.50685412 0.63840002
-0.47794756 -0.66177362 -0.57760006
0.97948718 0.15883577 -0.12400003
-0.15539366 0.91016299 -0.38400015
-0.76884705 0.50142193 0.3968001
0.33947057 -0.52806538 0.77840006
-0.67157131 0.037309479 0.74000001
-0.44695807 -0.75639057 0.47760001
0.10198027 -0.17540607 -0.97920007
0.63185209 -0.76348799 -0.13360013
0.12974806 0.72983295 -0.67119992
-0.7303654 -0.45213094 0.51199996
-0.24767719 0.71000797 -0.65920007
-0.80629843 -0.55433017 -0.20639996
-0.17077704 -0.95147216 -0.25599989
-0.69847834 -0.66672933 0.25999999
-0.26751357 0.49681094 0.82560003
-0.92993003 -0.30159894 -0.21040003
-0.75823122 -0.17232527 -0.62879997
-0.4209308 0.72706228 -0.54239994
0.49253631 -0.85545778 -0.15999991
-0.87631959 -0.23593217 0.42000005
0.50873965 0.83942038 -0.19119987
0.65641165 -0.74592221 0.1127999
-0.14109063 0.94060409 -0.30879986
-0.67733604 -0.16557105 -0.71679991
0.11029565 0.9926604 -0.049600095
0.50755256 0.85482538 -0.10799996
-0.30290332 0.53008068 0.792
0.075789191 -0.69726038 -0.71280009
-0.049960013 -0.97421968 -0.21999991
-0.78623682 -0.6177575 -0.014400001
0.27718562 -0.039597943 -0.96000004
-0.14872253 0.66925156 0.72799999
-0.321596 -0.90046889 0.29280001
0.39147645 -0.71177518 0.58320004
-0.89927971 -0.41966382 0.12319998
-0.20856538 -0.83426154 0.51039994
-0.86494172 0.46336156 0.19280005
0.96196067 0.24049012 0.12960006
-0.84617919 -0.42308959 0.32400006
0.39348292 -0.85254627 0.34400004
0.015594849 0.38207418 -0.92400008
0.94495517 0 0.32719991
0.59980798 0.69977593 0.38800004
0.73829645 -0.60989702 0.28799993
0.83697706 -0.53998518 -0.088799976
-0.22553049 0.58372605 -0.77999997
0.37786779 0.49122798 0.78479999
0.31301364 0.79992408 0.51199996
-0.84086925 0.40907153 -0.35440004
-0.78415018 0.52276689 0.33439991
0.95935446 -0.28216308 -0.004799848
0.87260896 -0.26849511 0.40800002
-0.23890413 -0.73377705 -0.63600004
-0.19754498 0.23705393 0.95120001
0.58462161 -0.64509964 -0.49200007
-0.071768552 0.78945374 0.60959989
0.19559628 -0.89104992 -0.40959993
-0.29716954 -0.84905595 -0.4368
-0.20905581 0.966883 -0.14640005
-0.75291127 0.44767702 -0.48240012
-0.93780822 0.1616911 0.3071999
-0.25776646 -0.91389906 -0.31359994
-0.36756495 0.62486047 0.68879998
-0.81688535 0 0.57680005
0.97313678 0.22897333 0.024000164
-0.72953683 -0.63226521 -0.2608
-0.82455128 0.55951691 0.083999999
-0.49159336 0.83570868 -0.24479982
0.53338319 0.27939123 -0.79840022
0.79023814 0 0.61279988
-0.50990188 0.71386272 -0.48000014
-0.38665745 -0.30932602 0.86879998
-0.31130606 0.47893238 -0.82079983
-0.90884471 -0.41044596 0.074400023
-0.6678558 0.18551554 0.72079998
0.83584422 0.54762203 0.038399909
0.66214442 0.74851102 0.035999969
0 0.19899753 0.98000002
0.38665757 -0.30932602 0.86879992
0.52032179 0.61003238 -0.59759998
-0.85871345 0.50338376 0.095999852
0.42777419 0.15555431 0.89039993
-0.8242594 0.30909717 0.47440001
-0.060715754 -0.485726 -0.87199992
0.61003238 -0.52032179 -0.59759998
-0.29412165 0.66177362 0.68959999
-0.39157534 0.69415623 -0.60399991
0.27939123 -0.53338319 -0.79840022
0.073530346 0.44118217 -0.89440012
-0.26026443 -0.78079343 -0.56800008
0.11968748 -0.079791769 0.9896
-0.05317517 -0.019233571 -0.99839997
-0.63891053 -0.075165994 0.76560003
0.95142841 0.095142901 -0.29279986
0.63717133 -0.14992261 0.75599998
0.59980798 -0.69977599 0.38799995
-0.023986643 0.95946658 -0.28079984
-0.05317517 -0.019233571 -0.99839997
0.11487163 0.41530517 -0.9024002
0.064710982 0.90595466 -0.41840011
0.69299763 -0.48124832 -0.53680009
0.031189721 0.71736425 -0.69599986
0.41521081 0.63112044 -0.65519994
0.2510649 -0.75319481 0.60799998
-0.52580386 0.37557432 0.76319999
-0.54871356 -0.44201925 -0.70960021
0.1348184 -0.62016451 -0.77280009
-0.67868483 -0.70953411 0.18960005
0 -0.07993602 0.99680001
0.060715754 -0.485726 -0.87199992
0.27718562 -0.039597943 -0.96000004
-0.076210283 -0.33255389 -0.93999994
-0.11627004 -0.46508014 0.87760001
0.35404667 0.039338492 0.93440002
-0.53919941 -0.57514602 0.61519998
-0.2182329 0.83325285 -0.50800014
-0.76476407 -0.50255924 -0.40319994
-0.038391631 0.53748327 0.84240001
0.8086136 -0.48516813 -0.33280015
-0.26421079 -0.5661661 0.78079998
-0.42010286 0.7351799 0.53200006
-0.025018372 0.97571737 -0.21759991
0.37664884 0.84192085 -0.38640001
-0.27519882 -0.23588473 0.93199998
-0.35992807 0.68557721 -0.63279986
0.94961852 -0.29675579 0.10080004
-0.32662934 0.68955082 0.64639997
-0.76800001 -0.57600003 0.27999994
0.4234072 -0.3079325 0.85199994
0.28966194 -0.95588416 0.048800051
-0.87739611 0.35745776 0.32000005
0.53066009 -0.3316626 -0.77999985
0.35868227 0.13255651 -0.92399991
0.84073681 -0.49821442 0.21200009
0.57600009 -0.3456001 -0.7407999
-0.87631959 0.23593217 0.42000005
-0.85434604 0.42717302 -0.29600009
-0.72983295 0.12974806 -0.67119992
-0.99568349 0.058569562 0.071999989
0.79983991 -0.59988004 0.0200001
-0.095142834 0.95142847 -0.29279983
-0.1097459 0.73163921 0.67280006
0.031989966 0.95969999 0.27919996
-0.25884664 0.58581084 -0.76800007
0.24550745 -0.80666739 0.53760004
-0.98889321 0.1373463 -0.056800094
-0.4457514 0.34017873 -0.82800007
-0.74292392 0.35288885 -0.56880003
0.62633568 0.38543737 -0.67759997
0.19571412 -0.35228536 0.9152
-0.86898565 -0.49242514 0.048799977
-0.43992728 0.58656979 0.67999995
0.49159336 0.83570868 -0.24479982
0.17798878 -0.97893816 0.10000008
-0.75823116 0.17232531 -0.62880003
-0.038616024 -0.50200874 0.86400002
-0.7145797 0.1429159 -0.68479985
-0.51934922 -0.50361139 -0.69039989
-0.14891613 0.98284614 0.10880008
0.80351353 0.2794829 0.52559996
0.78107953 -0.44147968 0.44159994
0.1903176 -0.9787764 -0.076000072
0.67576939 -0.67576945 0.29440004
-0.93431234 -0.35036713 0.06560003
-0.41521081 0.63112044 -0.65519994
0.77635461 -0.54991776 0.308
0.21616288 0.95729285 0.192
0.83344603 0.1550597 -0.53040004
-0.94819742 -0.31606588 0.032000061
0.67464715 0.46160069 0.57600003
0.8150183 -0.10630672 0.56959993
-0.67891443 0.42878807 0.59600002
0.19607997 -0.98039991 -0.019199958
-0.93089551 0.22469887 0.2879999
0.29929823 0.51130116 -0.80560023
-0.11975976 0.039919883 0.99199998
-0.54762203 -0.83584422 0.038399909
-0.49122798 -0.37786767 0.78479999
0.14608279 -0.73041356 0.66720003
0.48534554 -0.53231448 -0.69360006
-0.68281674 -0.39531502 0.61439997
-0.36631265 0.91578162 0.16479993
-0.64509964 -0.58462161 -0.49200007
0.707627 0.42457622 0.56480002
-0.4457514 0.34017873 -0.82800007
0.50471944 0.654266 -0.56320006
-0.15356663 -0.50457615 -0.84960002
0.56390643 0.71572739 -0.41199988
-0.82128876 0.17189759 -0.54400003
0.27519882 -0.23588473 0.93199998
-0.81688535 0 0.57680005
-0.52580386 0.37557432 0.76319999
0.50200874 -0.038616024 0.86400002
-0.14739987 -0.95809913 -0.24559991
-0.5327515 -0.18942276 -0.8247999
0.45685092 0.27856761 -0.84480017
0.1373463 -0.98889321 -0.056800094
0.7985006 0.36853877 -0.47599992
-0.589252 0.67343086 -0.44639996
-0.83942038 -0.50873965 -0.19119987
0.29791254 0.16627677 -0.94000006
-0.16627677 0.29791254 -0.94000006
0.99558061 0.082964972 -0.044000067
-0.24248709 0.83138442 0.49999997
0.70750493 0.65871143 -0.25600001
0.39941078 0.83210576 0.38479999
0.29630259 -0.24172053 -0.92399997
-0.76799995 -0.34559998 -0.53920007
-0.15209258 -0.57034731 0.80720001
-0.26514897 0.8362391 -0.48000017
0.11859972 -0.27673292 0.95360005
0.70953417 -0.67868483 0.18959993
-0.27856761 0.45685092 -0.84480017
-0.92022085 -0.39039671 -0.02799988
0.49941659 0.19208336 0.8448
0.92523736 0.18504743 -0.33119982
0.73958164 0.3874 0.55040002
-0.42704859 0.87921786 -0.2112001
0.66185194 0.39032298 -0.63999999
-0.72019017 0.015656292 -0.69360006
-0.78460187 0 -0.61999989
0.67733604 -0.16557105 -0.71679991
-0.031989966 -0.95969999 0.27919996
0.54991788 -0.77635455 0.30799991
0.41625991 0.8645398 0.28160009
0.55964267 0.37309524 0.74000001
-0.5346753 0.19095553 0.82320005
0.52483904 -0.83974248 -0.13919993
-0.94376779 -0.19359343 -0.26799992
-0.11154208 0.28505197 -0.95199984
0.66353619 -0.66353619 -0.34560019
0.49159336 0.83570868 -0.24479982
0.67868489 -0.70953411 0.18959995
-0.59268284 -0.37042677 0.71520001
0.80379218 0.53586155 -0.25840002
0.5011462 -0.11564913 0.85760003
0 -0.73321205 0.68000007
0.478046 -0.74824589 -0.46000016
0.29113287 -0.905747 0.30800003
-0.10224677 -0.88613856 0.45200005
0.90545863 -0.42443377 0.00080002233
-0.11154183 -0.28505135 -0.95200008
0.15790638 -0.27633598 0.94800001
-0.32159603 0.90046883 0.29280013
0.343418 0.45789084 0.82000005
0.34171149 0.9397065 0.013600079
-0.35382709 -0.078628279 0.93199998
-0.71476096 -0.68828833 -0.12399988
0.61775756 -0.78623676 -0.014400106
0.15209268 -0.57034731 0.80719995
-0.93089551 0.22469887 0.2879999
0.57123017 -0.11424606 0.81280005
0.62477028 0.77352512 0.10640011
0.50755256 -0.85482538 -0.10799996
0.11262103 -0.6381864 0.76160008
-0.82128876 0.17189759 -0.54400003
-0.1574192 -0.31483841 -0.93599999
0.39223075 0.24873167 -0.88560015
0.072531305 0.76157933 0.64400005
0.93495947 0.21575983 -0.28159988
-0.70300293 -0.53759044 -0.46559998
-0.86656582 -0.2324933 -0.44159999
-0.9335044 0.068305135 -0.35199997
0.38659364 -0.44894749 -0.80560011
-0.27740514 0.90156668 -0.33199993
-0.77635455 0.54991788 0.30799991
-0.10074285 -0.90668553 0.40960008
0.82136667 -0.42178288 -0.38400003
-0.53725708 -0.83573318 0.11359997
0.74976432 0.60464865 -0.26880002
0 0.94495517 0.32719991
0.95142841 0.095142901 -0.29279986
0 -0.7029897 0.7112
-0.97365552 0.18420509 -0.13440003
-0.86898565 -0.49242514 0.048799977
0.58095646 0.5628016 -0.588
0.91092563 0.021688685 -0.41200012
-0.45848304 0.88831097 0.026399998
0.14677981 -0.88067895 -0.45040011
0.11639371 0.45587537 -0.88240021
0.71572739 0.56390643 -0.41199988
0.13405678 0.90488273 0.40400007
-0.48875222 0.86889279 -0.078399986
-0.86899406 0.47944507 0.12239984
0.49122798 0.37786779 0.78479999
0.82825118 -0.47328633 -0.3000001
-0.66177362 0.47794756 -0.57760006
-0.57313949 -0.50571132 -0.64480007
0.35399777 -0.21071294 -0.91120011
-0.76615614 -0.3830781 0.51599997
-0.3316626 0.53066009 -0.77999985
-0.52580386 0.37557432 0.76319999
-0.96705675 -0.21154365 0.14160004
-0.44695807 -0.75639057 0.47760001
0.64509964 -0.58462161 -0.49200007
-0.94657272 0.11832162 -0.30000004
0.63112044 -0.41521081 -0.65519994
-0.82825118 0.47328639 -0.29999992
-0.5011462 0.11564901 0.85760003
0.99167061 0 0.12880009
0.087115496 0.58491844 -0.80640018
-0.6872344 -0.71711427 0.116
0.62634331 0.69227409 0.35840008
0.039983958 -0.039983958 0.99840003
-0.6526745 -0.35897094 -0.66720003
-0.076210134 0.3325533 -0.94000018
0.47893238 0.31130606 -0.82079983
0.38207418 0.015594849 -0.92400008
-0.42178288 0.82136667 -0.38400003
0.2623646 0.59969068 0.75599992
0.060015943 -0.99026394 0.1256001
-0.33724913 -0.56208187 0.75519997
0.53699023 -0.73836142 0.40799993
0.14310843 -0.7870959 0.59999996
0.17848253 0.78532302 0.5927999
0.83668834 -0.1743101 0.51919997
-0.69787705 -0.42239925 -0.57839996
0.64509964 -0.58462161 -0.49200007
0.68368644 -0.25439495 -0.68400002
-0.40546906 -0.58977312 0.69839996
-0.92159796 0.28601307 0.26239994
0.98039991 0.19607995 -0.019200126
0.15555431 0.42777419 0.89039993
0.4153595 0.76149249 0.4975999
-0.25587872 -0.96665293 0.010399976
0.079935901 0 0.99680001
0.35036713 0.93431234 0.06560003
0.1414893 0.81356305 0.56399989
0.038391631 0.53748327 0.84240001
0.86518443 0.28118494 -0.41519985
0.60033828 0.32213277 -0.73200029
-0.48357204 -0.48357204 0.72960001
0.31671807 -0.77419996 0.54800004
0.57194066 0.81705821 -0.072799988
0.97948718 0.15883577 -0.12400003
0.91578168 -0.2060509 -0.34479985
0.73251343 0.073251277 0.67680007
0.32950872 -0.85672277 -0.39679986
0.49253631 -0.85545778 -0.15999991
0.31606588 0.94819742 0.032000061
0.025984587 -0.98741519 -0.15599997
-0.43645701 0.61831415 0.65359992
0.31339994 0.8730427 -0.37359989
-0.66925156 0.14872263 0.72799999
0.92159796 -0.28601316 0.26239988
-0.91805989 -0.28991365 -0.27039999
0.670008 -0.49369007 0.55440003
0.72690022 0.21807009 0.65120006
-0.23338072 0.38896796 0.89119995
-0.027747404 -0.99890757 -0.037600081
0.37546763 -0.90112251 -0.21680002
-0.4811506 0.72172588 -0.49760011
0.94819742 -0.31606588 0.032000061
0.66498911 -0.52499145 0.53119999
0.065090641 -0.94381529 0.32399991
-0.60989702 0.73829645 0.28799993
0.51067573 -0.54715264 0.66320002
-0.034724079 0.78129131 -0.62319994
0.43307865 -0.5934782 -0.67839992
-0.03979142 0.19895732 0.97920001
0.10007998 0.86068767 -0.49920005
0.66614598 0.22204866 0.71199995
0.36756504 -0.62486041 0.68879998
-0.47076106 0.62768149 -0.62
0.75037903 0.28585866 0.59600008
0.88296187 -0.32702294 0.3368001
-0.15564065 0.96497178 0.21119998
0.24561308 0.89313835 -0.37679988
-0.90899819 0 0.41680008
0.81951207 0.45892671 0.34320003
-0.26849511 -0.87260896 0.40800002
0.27492303 -0.94695741 0.16640003
0.95809913 -0.14739987 -0.24559991
0.67891443 -0.42878807 0.59600002
0.03415725 0.88808936 0.45840004
0.56002861 -0.52608752 -0.63999993
-0.63236338 -0.26038492 0.72960007
-0.68649501 0.089542829 -0.72160006
0.74976432 0.60464865 -0.26880002
0.34417489 -0.83892614 -0.42159998
0.37664884 -0.84192085 -0.38640001
0.57709879 -0.28854939 -0.76400012
0.16627677 -0.29791254 -0.94000006
-0.45794672 -0.48656842 -0.74399996
0.68943948 0.56408685 -0.45439982
0.75291127 0.44767702 -0.48240012
0.80666745 0.24550745 0.53759992
0.39941078 -0.83210576 0.38479999
-0.019232225 0.053171452 -0.99840015
-0.35346061 0.11782009 0.92800003
-0.70493031 0.70493031 0.078399926
0.99823046 -0.057041764 0.016799863
-0.31176946 -0.1385642 -0.93999988
-0.74717522 0.32021785 0.58240002
0.37624118 0.078383595 -0.92320019
0.39348292 -0.85254627 0.34400004
-0.6269055 0.60668278 -0.48880008
-0.077211432 -0.41179428 -0.90799993
-0.55481029 0.76286405 -0.33199996
0.92501557 -0.23718348 -0.2967999
-0.088897012 -0.057148073 -0.99440002
-0.46109992 0.26897493 0.84560001
0.58581084 -0.25884664 -0.76800007
-0.42457622 0.707627 0.56480002
-0.85871345 0.50338376 0.095999852
-0.67576945 0.67576939 0.29440004
0.94518572 -0.2205433 0.24079995
-0.40546668 0.59260517 -0.69599992
0.11029565 0.9926604 -0.049600095
0.6475628 -0.61348057 0.45199999
0.35288885 -0.74292392 -0.56880003
0.72929955 -0.63417345 0.25679997
-0.61456347 0.46996033 0.63360006
0.50406969 0.3950817 -0.76800013
0.83521229 -0.018982079 -0.54960001
0.38806003 0.0079195844 -0.92160004
-0.4111588 0.5232929 0.7464
-0.28878123 -0.72195286 0.62880003
-0.028554482 -0.99940783 0.019200034
0.44894749 0.38659364 -0.80560011
-0.8389262 -0.34417486 -0.42159989
-0.3946344 0.8589102 -0.32639998
-0.41726574 0.55138689 -0.72240001
0.80666745 -0.24550745 0.53759992
-0.95246208 -0.2457967 0.17999998
0.15832734 -0.23749089 0.95840001
-0.85836232 -0.36315334 0.36240003
0.34152588 0.49331531 0.80000007
-0.98051673 0.091923364 0.17360005
-0.80143076 0.40071538 -0.44399998
-0.45848304 -0.88831097 0.026399998
-0.90730369 -0.38884446 -0.15999998
0.99148953 0.080390967 -0.10240001
0.7029897 0 0.7112
-0.48635983 0.44894758 0.74959999
-0.69713706 0.15491939 -0.69999993
0.2510649 -0.75319481 0.60799998
-0.22469887 0.93089551 0.2879999
0.3830781 -0.76615614 0.51599997
0.92547512 -0.099158064 0.36560014
0.26480848 0.3061848 -0.91439998
0.38806003 0.0079195844 -0.92160004
0.10502561 -0.84020573 0.53200001
-0.03786293 0.83298403 -0.55199999
-0.21485324 -0.67525315 -0.70559996
-0.92022085 0.39039671 -0.02799988
-0.6391589 -0.66119885 -0.39280015
0.8798545 0.46925581 0.075199872
0.82401085 0.074910119 -0.56159997
-0.8645398 -0.41625991 0.28160009
-0.4417384 0.88347679 -0.15599982
-0.49253631 -0.85545778 -0.15999991
-0.79940546 0.29246536 -0.52479994
0.12699606 -0.8889724 -0.44000012
0.69886947 -0.18391307 0.69120002
0.097960263 0.20991488 -0.97279984
0.68955082 0.32662925 0.64640003
0.072531305 0.76157933 0.64400005
-0.33704597 -0.84261501 0.42000002
-0.24836487 0.78057545 0.57359993
-0.76199102 0.53008085 0.37199998
0.36943036 -0.50136983 -0.78239983
0 0.72112995 -0.69279987
-0.81492478 -0.53283542 0.22800007
0.54531604 0.22308385 -0.80800003
-0.96752053 -0.24879101 -0.044799972
-0.3079325 -0.4234072 0.85199994
-0.48357204 0.48357204 0.72960001
-0.076210283 -0.33255389 -0.93999994
-0.82136667 -0.42178288 -0.38400003
-0.78057539 0.24836487 0.57359999
-0.11951902 0.98603207 0.11600009
-0.39941078 -0.83210576 0.38479999
0.69713712 -0.15491936 -0.69999993
-0.7952559 0.60329759 -0.0600002
-0.78415018 -0.52276677 0.33439997
0.27235734 -0.8511169 0.44880003
0.23807226 0.079357341 0.96799999
-0.17848253 0.78532302 0.5927999
-0.15555421 -0.42777419 0.89039999
-0.490244 0.11473797 -0.86400002
-0.8511169 -0.27235746 0.4488
-0.95122254 -0.3077485 -0.021600045
0.83426154 -0.20856538 0.51039994
0.22553049 0.58372593 -0.78000003
-0.97365552 0.18420509 -0.13440003
-0.94076699 0.30347329 0.15119995
0 0.9115451 -0.41120011
-0.55770963 0.8055805 0.20000002
0.17820269 0.24579678 -0.95279998
0.11424594 -0.57123029 0.81279999
-0.8212887 -0.17189763 -0.54400003
-0.45700869 0.70309031 0.54480004
0.8636384 -0.33216861 0.37920004
0.62016481 -0.13481843 -0.77279985
-0.41369367 0.48891062 0.76800001
-0.1513142 -0.46403021 -0.87280005
0.10885578 -0.20824581 -0.97200006
0.4444862 -0.85722339 0.26000011
0.039983958 -0.039983958 0.99840003
0.036651842 -0.73303747 0.67920005
-0.14271201 -0.59679562 -0.78960007
0.37546763 0.90112251 -0.21680002
-0.060810525 -0.8716175 -0.48640004
0.85279703 -0.47656307 -0.21359985
0.33137584 -0.93387723 0.13439997
-0.70150924 0.11076451 0.704
-0.67868483 -0.70953411 0.18960005
-0.21616288 0.95729285 0.192
-0.82165217 0.54776818 0.15760006
0.94070268 -0.27966839 -0.19200005
-0.26897493 -0.46109992 0.84560001
-0.63498026 0.63498026 -0.44000012
-0.98218632 0.061386585 0.17760004
0.054039814 0.19953163 -0.97840011
-0.29881907 0.59763813 0.7439999
0.61775756 0.78623676 -0.014399973
0.11346178 0.60513014 0.78799993
0.63698411 -0.027105721 -0.77040023
-0.10751893 0.78847224 0.60559988
-0.18844688 0.199532 -0.96160012
-0.94923973 0.22481987 -0.21999994
0.040302798 0.63141114 -0.77440017
-0.57223773 0.038149145 0.81919998
-0.039863732 0.15945515 0.98640001
0.1852186 -0.74087429 -0.64560002
-0.075725846 -0.22244467 -0.972
-0.53628355 0.72934562 -0.42479986
0.46996033 -0.61456347 0.63360006
-0.9597916 0.27422625 -0.060000006
0.38659364 -0.44894749 -0.80560011
-0.57709879 -0.28854939 -0.76400012
-0.026892353 -0.99501801 -0.096000023
0.86899412 -0.47944498 0.12239991
-0.18844688 -0.199532 -0.96160012
0.71386272 0.50990188 -0.48000014
0.37546763 0.90112251 -0.21680002
-0.62461507 -0.74953812 0.2192
-0.69227421 0.62634325 0.35839999
0.045677084 -0.93638116 -0.34799996
0.40859884 -0.8938098 -0.18480003
0.49097472 -0.18547933 -0.85119987
-0.64426577 0.76140499 0.072000042
-0.080391049 -0.99148953 -0.10240003
0.31255335 0.93766004 -0.15200008
-0.7303654 0.45213094 0.51199996
0.5834381 0.74680078 -0.31919995
-0.23338073 -0.38896784 0.89120001
-0.76800001 -0.61439997 -0.1808001
-0.90545869 0.42443368 0.00080009387
-0.60418171 -0.1510454 0.78240001
-0.90595466 0.064710982 -0.41840011
0.11639382 -0.45587578 -0.88239998
0.97239989 -0.21608889 -0.088000096
-0.63097644 -0.56086791 0.53600001
-0.55543739 0.6595819 0.50639999
-0.58831286 0.72407734 -0.35999992
0.57223761 0.038149145 0.81920004
-0.95122254 0.3077485 -0.021600045
-0.26751357 -0.49681094 0.82560003
0.94070268 0.27966839 -0.19200005
0.24735406 0.93994516 -0.2352
0.6391589 -0.66119885 -0.39280015
-0.17189763 0.8212887 -0.54400003
-0.76140499 -0.64426577 0.072000042
-0.27126369 -0.75953829 -0.59120011
0.45959845 -0.30639902 0.83359998
0.47374251 0.58306783 0.65999997
-0.56086791 -0.63097644 0.53600001
0.96000004 0 -0.27999985
0.65450466 -0.25875762 -0.71039999
-0.33842841 0.92298645 0.18319991
-0.98839182 0.10685322 -0.10800004
0.9714517 -0.1821472 0.15200004
0.67705244 -0.73121661 -0.083199918
-0.46587211 0.038822636 0.884
0.035507713 0.81667823 0.57599992
-0.85672277 0.32950872 -0.39679986
0.50193864 0.86444986 -0.028000033
-0.1918301 0.17109171 -0.96639997
-0.37546769 -0.90112245 -0.21680009
0.49369007 0.670008 0.55440003
-0.08063744 -0.8668527 -0.49200004
0.32213277 0.60033828 -0.73200029
-0.23718348 -0.92501557 -0.2967999
-0.43307865 0.5934782 -0.67839992
0.26592627 -0.53185254 0.80400002
0.79194742 -0.20259123 -0.57600009
0.6269055 -0.60668278 -0.48880008
-0.79552674 0.46405718 -0.38960001
0.54047978 -0.82358831 -0.17199989
0.41634479 -0.14481558 -0.89759982
0.92022085 0.39039671 -0.02799988
0.01923174 0.053170104 -0.99840027
0.79140341 -0.49462715 0.35919994
-0.33617046 0.79098934 -0.51119983
0.25826868 -0.66411954 0.70160002
-0.036292113 -0.76213515 0.64639997
-0.28245687 0.41845465 -0.86319977
0.90595466 -0.064711049 -0.41840011
-0.76213515 -0.036292113 0.64639997
-0.46336165 -0.86494172 0.19279999
-0.36450511 0.65610927 0.66079998
-0.27582484 0.19701782 0.94080001
-0.40546906 0.58977318 0.6983999
-0.81951207 -0.45892671 0.34320003
0.11735474 0.3911829 0.91279995
0.063919887 -0.95879924 0.27679995
0.10249681 -0.67355055 -0.73200005
0.1918301 0.17109171 -0.96639997
-0.31587335 -0.91603285 0.24719991
0.78623676 -0.61775756 -0.014399868
0.63386005 0.66722107 0.39120004
-0.90788549 0.393417 0.14479995
-0.91603285 0.31587344 0.24719986
0.42157423 -0.43434924 -0.79599994
0.52355587 -0.8315298 0.18560004
-0.85672271 -0.32950875 -0.39679992
0.11564901 0.5011462 0.85760003
-0.81752324 0.23357806 -0.52640015
0.17695022 0.44237551 -0.87919992
0.37624118 0.078383595 -0.92320019
0.55770963 0.8055805 0.20000002
-0.55856383 0.31334069 -0.76800007
0.1414893 0.81356305 0.56399989
0.21616288 0.95729285 0.192
-0.78773391 -0.61268198 0.064000055
0.68649524 -0.089542866 -0.72159982
-0.25082779 0.94060409 0.22879992
0.19863538 -0.11918121 0.97280002
0.1510455 0.60418177 0.78239989
-0.59530324 0.33485797 0.73040003
0.95246208 -0.2457967 0.17999998
-0.42010286 0.7351799 0.53200006
-0.966883 0.20905574 -0.1464
0.98785067 0.1452722 0.055200133
0.24561308 0.89313835 -0.37679988
0.81705821 0.57194066 -0.072799988
0.051895231 -0.98601031 -0.15839997
0.34940398 0.31058133 0.88400006
-0.96891958 0.23488955 0.077600107
-0.2971696 0.84905601 -0.43679982
0.34166658 -0.81999964 0.45919994
-0.74824589 0.478046 -0.46000016
-0.47726822 0.55069405 0.68480009
-0.065090738 -0.94381529 0.32399991
-0.42717302 0.85434604 -0.29600009
-0.35868198 -0.13255636 -0.92400002
0.31353462 0.23515102 0.92000002
-0.35440901 -0.61636353 -0.70319998
0.61348057 -0.6475628 0.45199999
0.61836171 -0.71599776 0.324
-0.35294694 -0.15686525 0.9224
0.82805222 0.27601734 0.48799998
0.81955695 0.35724282 -0.44799995
0.57600009 -0.3456001 -0.7407999
-0.64911908 -0.43274602 0.62559998
0.25826868 -0.66411954 0.70160002
-0.077974394 0.428859 0.89999998
0.67891443 -0.42878807 0.59600002
-0.76615614 -0.3830781 0.51599997
-0.83974248 0.52483904 -0.13919993
0.94060409 -0.25082779 0.22879992
0.14992273 -0.63717121 0.75600004
-0.84402764 -0.13739984 -0.51840001
-0.48331773 0.58331454 -0.65280026
0.37969583 -0.29975989 -0.87520003
0.90509677 -0.22627419 -0.35999984
-0.60513008 -0.11346189 0.78799999
-0.56071389 0.74014229 -0.37119991
0.1852186 0.74087429 -0.64560002
-0.28878123 -0.72195286 0.62880003
0.8362391 0.26514897 -0.48000017
-0.63498026 -0.63498026 -0.44000012
0.15479544 -0.46438608 0.87199998
-0.16590697 0.8710115 -0.46240014
-0.58042741 -0.81259841 0.052800033
-0.40859875 0.8938098 -0.18480012
-0.060715754 -0.485726 -0.87199992
-0.1452722 0.98785067 0.055200133
-0.41726574 0.55138689 -0.72240001
-0.8546344 0.23929761 0.46080002
0.90906471 -0.043288816 -0.4144001
-0.71554172 -0.35777086 0.60000002
-0.039983958 0.039983958 0.99840003
-0.97089815 0.15329972 -0.18399997
0.96820593 0.099303231 -0.22959992
-0.071768552 0.78945374 0.60959989
-0.55433017 0.80629843 -0.20639996
0.17770626 0.96469122 -0.19439997
0.84617919 -0.42308959 0.32400006
-0.1852186 0.74087429 -0.64560002
0.54426348 0.54426348 -0.6383999
-0.81107926 0.57075953 0.1280001
-0.36789909 -0.91974783 -0.13679993
-0.42157441 0.43434939 -0.79599977
0.022768367 0.37188369 -0.92800003
-0.88442808 0.13606595 0.44640002
0 -0.53759992 0.84320003
-0.31170043 0.31170031 0.8976
0.4444862 -0.85722339 0.26000011
-0.28601316 -0.92159796 0.26239988
-0.77561975 0.37786603 -0.50559992
-0.90509665 0.22627421 -0.36000007
0.19863538 -0.11918121 0.97280002
0.93387723 -0.33137584 0.13439997
0.23488955 -0.96891958 0.077600107
0.64826667 0.756311 -0.08799991
0.47183043 0.84929484 0.23680013
0.50685424 0.82363796 0.25439999
0.68281674 0.39531502 0.61439997
-0.56595689 -0.60132915 0.56400007
-0.47186434 -0.77520579 0.42000008
0.38191107 -0.42010212 0.82319993
0.68089348 0.57875955 0.4488
-0.71038365 0.28753626 -0.64240015
0.84073675 0.49821448 0.21200001
-0.51067573 -0.54715264 0.66320002
0.75523472 -0.22832677 -0.61440003
-0.124882 -0.96783566 0.21839999
0.37664884 -0.84192085 -0.38640001
0.41634479 -0.14481558 -0.89759982
-0.28966185 -0.95588416 0.048800096
0 -0.7029897 0.7112
-0.73303747 0.036651842 0.67920005
-0.8511169 -0.27235746 0.4488
0.95518798 -0.071639106 -0.28719985
0.36315334 0.85836232 0.36240003
-0.55543739 0.6595819 0.50639999
0.62974292 0.18192573 -0.75519991
-0.52499145 -0.66498911 0.53119999
0.031989966 0.95969999 0.27919996
0.14271209 0.59679586 -0.7895999
-0.83619249 0.44132379 -0.32560009
-0.51613331 -0.79766059 -0.31200001
0.061386585 0.98218632 0.17760004
-0.5834381 0.74680078 -0.31919995
0.69724858 -0.69724858 -0.16639984
-0.023986643 0.95946658 -0.28079984
0.038149145 -0.57223773 0.81919998
0.39060986 -0.15624388 0.90719998
0.37188366 -0.022768388 -0.92800009
-0.79004204 -0.035910968 0.61199999
0.84617919 0.42308959 0.32400006
0.32482767 0.812069 -0.48479992
0.33947057 -0.52806538 0.77840006
0.53759056 0.70300299 -0.46559981
0.32662934 -0.63770497 -0.69759989
0.95122254 -0.30774853 -0.021599883
0.83138442 -0.31176919 -0.45999986
0.86602539 0 0.5
0.76959956 -0.59581906 -0.22960004
0 0.46597099 0.88480002
-0.61775756 0.78623676 -0.014399868
0.4283908 0.88738108 0.17039993
0.31529331 0.11823491 0.94160002
-0.22554894 -0.60146379 0.76639998
0.37786603 -0.77561975 -0.50559992
0.26592627 -0.53185254 0.80400002
-0.29881907 -0.59763801 0.74400002
0.74483573 0.50784242 0.43279997
0.53004146 -0.63604987 0.56080002
-0.020396058 -0.87703133 -0.48000005
0.53283548 0.81492478 0.228
0.037862867 -0.23191011 -0.97200006
-0.37624171 0.078383714 -0.92319995
0.37598553 0.92550284 0.045600045
-0.41033685 -0.78647894 0.46160004
-0.63016593 0.29654863 0.71760005
-0.73041356 0.14608279 0.66720003
0.25884664 -0.58581084 -0.76800007
0.31301364 -0.79992396 0.51200008
-0.85891014 0.39463443 -0.32640007
-0.94961852 0.29675585 0.1008
-0.71946383 -0.51390272 0.46719995
0.65066111 -0.29434669 -0.70000011
-0.17770626 -0.96469122 -0.19439997
-0.8716175 0.060810465 -0.48640004
-0.92993003 0.30159894 -0.21040003
-0.75291133 -0.44767702 -0.48240003
0.72019035 0.015656298 -0.69359982
0.14109062 -0.94060403 -0.30880004
0.16631106 -0.03054693 -0.98560005
0.52169448 0.85118574 -0.057600003
0.96820593 0.099303231 -0.22959992
0.670008 -0.49369007 0.55440003
0.49097472 -0.18547933 -0.85119987
0.53185254 0.26592627 0.80400002
0.03415725 -0.88808936 0.45840004
-0.84905595 0.29716954 -0.4368
-0.38722646 -0.87125945 0.30160007
0.68368644 -0.25439495 -0.68400002
-0.17204654 -0.86023253 0.47999999
0.61775744 0.2246391 -0.75360006
0.23783021 -0.1189151 0.96399999
0.3836666 -0.38366649 0.83999997
0.97515506 0.15236801 0.16080002
0.81605613 -0.070961431 0.57359993
-0.77127433 -0.068557709 -0.63279992
0.56595695 0.60132921 0.56399989
0.15249391 -0.53959388 -0.82800007
0.76800007 0.34560007 -0.53919989
0.40841866 -0.55693448 0.72319996
0.86068767 0.10007998 -0.49920005
-0.38806003 0.0079195844 -0.92160004
-0.14109062 -0.94060403 -0.30880004
0.022880534 0.9381029 -0.34560016
0.87634295 -0.34592485 -0.33519998
-0.11968759 -0.079791769 0.9896
0.60464865 0.74976432 -0.26880002
-0.76213515 0.036292113 0.64639997
-0.29881907 -0.59763801 0.74400002
-0.039183632 0.39183679 0.91919994
0.53185254 -0.26592627 0.80400002
0.78532302 0.17848253 0.5927999
-0.81955701 -0.35724279 -0.44799986
-0.31353474 0.23515102 0.91999996
-0.13481843 0.62016481 -0.77279985
0.33947057 -0.52806538 0.77840006
0.18504742 -0.9252373 -0.3312
-0.7870959 -0.14310832 0.60000002
0.23826574 0 0.97119999
-0.50990188 0.71386272 -0.48000014
0.093876429 -0.97005731 0.22400001
0.75767809 0.1803996 0.62720007
0.72953683 -0.63226521 -0.2608
0.63426185 -0.2238571 0.73999995
-0.75935256 -0.14463855 0.63439995
0.81662095 0.45367825 -0.35680005
0.81721634 -0.092865519 -0.56879997
0.31561792 0.078904428 0.94560003
-0.97948718 -0.15883577 -0.12400003
-0.56771821 -0.82319146 0.0071999384
-0.060810525 -0.8716175 -0.48640004
0.79983991 -0.59988004 0.0200001
-0.83344603 0.1550597 -0.53040004
0.097488366 0.94238847 0.3199999
-0.44454572 0.22744203 -0.86640012
0.33166245 -0.53065991 -0.78000003
-0.84735972 -0.20175229 -0.49120009
-0.82401091 -0.074910067 -0.56159997
0.038616024 -0.50200874 0.86400002
-0.95786428 -0.047893237 -0.28320006
0.65066111 0.29434669 -0.70000011
0 -0.9115451 -0.41120011
0.96145988 0.18608902 0.20239998
-0.76149243 0.41535953 0.49759999
0.030039946 0.99131912 0.1280001
-0.95615232 0.26891777 0.11600007
-0.90255952 -0.16714071 0.39680007
-0.94777817 0.28959891 -0.1336001
0.80629838 0.55433023 -0.20640007
-0.84402764 0.13739984 -0.51840001
-0.38967314 -0.72367865 -0.56959993
0.45078003 -0.20490001 -0.86879992
-0.23588473 0.27519882 0.93199998
0.88103497 -0.40905198 0.23760013
-0.64826667 0.756311 -0.08799991
0.35017717 -0.77038962 0.53279996
0.96512234 -0.24128059 -0.10160009
0.72934562 -0.53628355 -0.42479986
0.90545869 0.42443368 0.00080009387
-0.40230542 -0.62174457 0.67199999
-0.078904539 0.31561792 0.94560003
-0.199936 -0.89971191 0.38800007
0.11832162 -0.94657272 -0.30000004
0.97893816 -0.17798878 0.10000008
-0.10319688 -0.98037052 -0.16799997
0.10007998 0.86068767 -0.49920005
0 -0.96000004 0.27999994
0.69415623 -0.39157534 -0.60399991
0 -0.03999196 0.99919999
0.22994956 -0.49822402 0.83600003
-0.31058145 -0.34940407 0.884
-0.66177362 -0.47794756 -0.57760006
0.31483832 0.15741926 0.93599999
-0.90125424 0.17585446 -0.39599997
0.53573 0.15306582 0.83039999
0.59623241 -0.59623241 -0.53760004
-0.48656842 -0.45794672 -0.74399996
0.20669591 -0.69958621 -0.68399996
0.37598553 -0.92550284 0.045600045
0.34152612 -0.49331552 -0.79999983
-0.66672933 -0.69847834 0.25999999
-0.98284614 0.14891613 0.10880008
0.55389243 0.63029134 -0.54400003
0.2725383 0.36651698 -0.88960004
-0.29598922 0.88796759 -0.35199991
-0.11956722 0.1195671 0.98559999
-0.3620635 -0.54309523 -0.75759989
-0.24248709 -0.83138442 0.49999997
0.97313678 -0.22897342 0.024000125
-0.2603972 -0.62206 -0.73840004
0.59679586 0.14271209 -0.7895999
-0.74680078 -0.5834381 -0.31919995
-0.32662934 -0.68955082 0.64639997
0.28118491 -0.86518437 -0.41520002
-0.41326025 0.90917248 -0.051199928
0.24049012 0.96196067 0.12960006
-0.5011462 0.11564901 0.85760003
-0.28310844 -0.30884561 -0.90799999
0.93538445 -0.28061533 0.21519993
-0.67525315 0.21485324 -0.70559996
-0.55395311 -0.44316247 0.70479995
-0.81107926 -0.57075953 0.1280001
0.07890442 -0.31561804 0.94559997
-0.92423856 -0.11271205 -0.36479998
-0.69253159 -0.72023284 -0.04079996
0.22994956 0.49822402 0.83600003
0.62633568 0.38543737 -0.67759997
-0.23651876 0.23651876 0.94239998
0.92956418 0.26908442 -0.252
0.707627 -0.42457622 0.56480002
-0.077211432 -0.41179428 -0.90799993
0.94381529 -0.065090738 0.32399991
-0.89416951 0.44708484 -0.02400003
-0.45959845 -0.30639902 0.83359998
0 -0.3158775 0.94879997
0.96665293 0.25587866 0.010400181
0.92956418 0.26908442 -0.252
-0.15131433 0.46403059 -0.87279987
0.48572558 0.060715698 -0.87200016
-0.89095509 -0.36119801 -0.27520004
-0.1193985 0.15919808 0.97999996
0.46239725 -0.23119862 0.85600001
0.25826868 -0.66411954 0.70160002
-0.39183667 0.039183632 0.9192
0.79552674 0.46405718 -0.38960001
-0.15555421 -0.42777419 0.89039999
0.48656851 0.45794687 -0.74399984
0 0.79023814 0.61279988
-0.1903176 0.9787764 -0.076000072
0.50193864 -0.86444986 -0.028000033
